ply
format ascii 1.0
element vertex 1128
property float x
property float y
property float z
property uchar red
property uchar green
property uchar blue
end_header
0.0214411 0.0869537  0.863659 221 170 141
-0.183011 -0.059763  0.910496 52 55 38
-0.0469974  0.0897529   0.886375 195 116  86
 0.0163165 -0.0532356   0.848412 230 224 198
  -0.22917 -0.0581798   0.925674 163 159 114
-0.270296  0.238903  0.975175 224 218 202
 -0.232146 -0.0569707   0.926655 111 106  64
-0.144691  0.232571  0.934408 175 119  94
 0.00154889 -0.00625374    0.859519 126 122  97
 -0.1346 0.235844 0.931783 153  59  49
0.046169 0.219834 0.871573 162  98  60
-0.250741  0.482272  0.923835 236 230 208
0.0461316  0.219764  0.871631 174 112  73
-0.213573  0.194677  0.951819 231 183 145
0.0295857  0.221967  0.877248 128  65  47
-0.248309  0.244355  0.969068 218 161 132
-0.193945  0.475086   0.90737 185 186 178
-0.000430862   -0.0446045     0.855389 112 115  86
-0.0376657   0.227952   0.898457 123  57  35
-0.190437  0.475053   0.90708 169 170 162
-0.0745331  0.0960627   0.895504 173 119  85
-0.273888  0.481274  0.917606 48 44 41
-0.0415178 -0.0439186   0.868633 35 46 29
-0.143243  0.238428  0.934519 175  95  70
 -0.120608 -0.0447411   0.893757 147 159 121
-0.143263  0.238396  0.934478 175  95  70
 -0.154393 0.00140333   0.909417 172 157 116
 -0.179643 -0.0402507   0.912197 112 107  75
-0.152803   0.47309  0.901069 198 192 176
 -0.194467 0.00332076   0.922004 176 168  87
-0.0794889   0.194469   0.908846 179 114  92
-0.256746  0.248571  0.972161 136  87  46
 -0.188869 -0.0384267   0.915309 137 132 102
-0.147727  0.102409  0.918797 180  97  43
-0.383636  0.490392  0.929918 182 184 173
-0.195799  -0.11445  0.908152  98 105  74
-0.329671  0.487114  0.923607 38 37 33
 -0.189761 -0.0356249   0.917447 103 100  67
-0.142068  0.243166  0.934638 230 161 132
-0.0108946 -0.0326195   0.859539 79 82 55
-0.109412  0.241276  0.926742 114  40  27
-0.268667  0.254896  0.976647 174 148 131
-0.0643378    0.23896   0.910062 221 145 122
0.0356603  0.231262  0.876765 142  60  39
-0.166528  0.108166  0.925226 180  92  52
-0.0980354  0.0150008   0.893249 49 48 28
-0.166462  0.108226  0.925278 180  92  52
-0.224423 -0.110143  0.917785 249 244 215
-0.208709  0.252714  0.957181 211 147 109
-0.0242734   0.196454   0.890894 96 54 42
-0.379429  0.492166  0.926513 69 69 57
-0.245916  0.257084  0.969774 154  90  55
  -0.17196 -0.0295168   0.911471 65 68 41
-0.210021  0.255776  0.958085 157  80  50
-0.275347  0.485866  0.911993 56 54 42
-0.210064  0.255844  0.958243 158  85  42
-0.0620982 -0.0273947   0.877464 43 47 33
-0.00314295   0.0158899    0.867877 167 161 135
-0.0799459  0.0173269   0.888211 185 168 116
-0.0146586  -0.100412    0.85367 42 49 42
-0.0149716 -0.0999693   0.853029 44 54 45
-0.253263 -0.109072  0.926637 174 158 142
-0.263917  0.263143  0.976203 124  66  42
-0.144389  0.256079  0.937495 220 143  97
0.0195206  0.105786  0.866528 119  74  43
-0.12862 0.255337 0.932135 149  68  38
-0.218698  0.117695  0.942615 231 180 151
-0.195749 0.0224008  0.925443 233 219 210
-0.149484  0.261551  0.939597 143  62  43
-0.139516   0.47886  0.891442 45 45 35
-0.13128 0.115873 0.915548 132  93  62
-0.00521269    0.248744    0.891501 174 104  79
-0.00603034    0.112583    0.875177 163 111  72
-0.00521498    0.248808    0.891603 174 104  79
-0.211127  0.267623  0.960029 204 128  78
-0.145232 0.0251133    0.9091 51 46 26
-0.20847 0.269419 0.959262 159  70  40
-0.217666  0.270996  0.962454 122  65  35
-0.126594  0.262896  0.932403 127  52  29
-0.105944  0.476735  0.884269 35 32 27
-0.0613448   0.257496   0.910301 174  88  65
-0.25266 0.125995  0.95503 220 179 125
-0.212883  0.495053  0.917417 76 67 62
-0.00927042  -0.0606728     0.86003 41 47 43
-0.217904  0.125778  0.943808 192 124  87
0.031774 0.250166 0.879933 206 139  96
-0.0475588   0.026979   0.879291 40 38 25
-0.0746363   0.263894     0.9159 206 131  91
-0.201735  0.276915   0.95793 168  83  54
-0.0081941    0.11917   0.876809 82 44 25
-0.330527  0.495013  0.911892 194 191 176
-0.171923 0.0328273  0.919009 188 125  92
-0.19739 0.276947 0.956968 173 107  81
-0.213601  0.127939  0.942911 128  51  31
0.023245 0.258568 0.883458 136  61  42
-0.171927 0.0328791  0.918989 188 125  92
-0.132698  0.227786   0.93017 216 153 109
-0.071679  0.268239   0.91546 224 180 155
-0.201011  0.280503  0.958307 171  88  58
 -0.239032 -0.0537435    0.92908 227 220 204
-0.183611  0.280117   0.95325 153  68  31
-0.200047  0.282733  0.958075 216 145 113
-0.198628  0.282913  0.957792 183 119  92
-0.22098 0.134015 0.945867 236 182 146
0.0462456  0.260774  0.876477 182 129  89
-0.0503845   0.270956   0.910384 144  69  40
 -0.148023 -0.0355505   0.903767 110 116  82
-0.0546876   0.273508    0.91081 166  95  65
-0.033847  0.271963   0.90356 97 42 39
-0.157311 0.0410207  0.915287 156  93  58
-0.0553634   0.275238   0.911214 217 161 128
-0.254944  0.295343  0.977248 95 51 26
 -0.210488 -0.0307046   0.922565 171 164 122
-0.113846  0.282125  0.930978 152  94  74
-0.0456383   0.275343   0.908077 214 148 113
0.0112687  0.126682   0.87101 128  55  38
-0.239983  0.137751  0.951872 189 127  78
-0.255253  0.299543  0.977857 167 120  78
-0.196139  0.294899   0.95882 152  77  45
-0.249087  0.300462  0.976093 133  65  44
-0.210547  0.296691  0.963564 145  84  27
-0.212633  0.300227     0.965 129  70  36
0.00497058   0.278514   0.891653 200 128 103
-0.059062  0.287073   0.91371 138  64  37
0.00804366   0.280146   0.890815 212 142 108
-0.244387  0.306564  0.975131 99 32 24
0.0425087  0.277849  0.879819 195 143  83
-0.231892  0.306072  0.971322 203 139 101
-0.244227  0.308461  0.975133 220 168 146
-0.126183  0.296779  0.936311 197 125 101
-0.126178  0.296803  0.936276 197 125 101
-0.0294276   0.287168   0.903898 113  76  60
-0.0726856   0.293005   0.918942 136  78  28
-0.251194  0.150125  0.957398 149  66  34
0.0552965  0.280637  0.875053 221 221 223
-0.00117416    0.287523    0.895167 158  83  60
-0.209266   0.15088  0.944229 239 184 128
0.00666291   0.287565   0.892128 172 112  84
0.00651075   0.287523   0.891993 172 112  84
-0.000174964     0.289066     0.894412 214 139 108
0.0182501  0.140971  0.871034 219 174 109
0.0182628   0.14098  0.870696 222 182 121
-0.122874  0.305208  0.936669 104  41  34
-0.161362  0.155227  0.929585 234 179 140
-0.137194  0.311398  0.941778 223 141 103
-0.137189  0.311405  0.941845 218 148 114
-0.159716  0.162691  0.930206 178  90  54
-0.022591  0.300546  0.903468 115  52  37
0.0124137  0.296713  0.891409 224 165 121
-0.0207623   0.300775   0.902858 190 128 115
-0.0986041   0.311955   0.930316 103  38  34
-0.257208  0.330053  0.982297 209 205 204
-0.0171038   0.159003   0.884241 194 135 121
-0.255786   0.33088  0.981947 141 109  86
-0.256613  0.296221  0.977918 153 112  66
0.0256914  0.300331  0.887633 105  63  38
-0.0605259    0.16425   0.899291 97 48 34
-0.145441  0.321567  0.946433 179 103  53
-0.123452   0.16894  0.918919 156  69  49
0.0235299  0.305446  0.889037 118  72  39
-0.0287466   0.164935   0.888734 158  62  40
-0.10169 0.287997 0.927519 109  67  45
-0.233245  0.336249  0.975564 144  75  46
-0.233277  0.336258  0.975619 144  75  46
-0.0520603   0.284225   0.911368 213 156 111
0.0422802  0.306415  0.882792 234 215 209
-0.213291  0.179415  0.949246 129  47  33
-0.125701  0.295761  0.936182 194 120  91
-0.249675  0.340439  0.980885 209 158 131
-0.251267  0.343843  0.982687 141 109  94
0.0368585  0.171925  0.868343 124  70  46
-0.17588 0.335958 0.956821 199 139 115
-0.138952  0.300656  0.941118 152  66  53
0.0392266  0.288705  0.881981 100  62  41
-0.250935  0.192902  0.963268 156  91  49
-0.250923  0.192917  0.963283 163 100  49
-0.073043  0.182084  0.905736 169  70  51
-0.0221866    0.17871   0.888053 164  86  48
0.0333691  0.175694  0.870295 154  87  58
-0.0212906   0.181154   0.887937 211 161 110
0.0287931  0.297114   0.88613 171 123  83
-0.0869923   0.187182   0.909987 219 122  87
-0.215781  0.196609  0.952804 180 102  82
0.0201949  0.184819  0.875702 126  69  49
-0.0709925   0.193164   0.905846 230 175 144
-0.215583  0.205889  0.953527 184 112  62
-0.236956  0.342121  0.977016 125  74  47
0.0313453  0.315731  0.887492 205 151 113
-0.0669504   0.203402   0.906044 181 107  70
-0.0669399   0.203482   0.906108 181 107  70
-0.00277139     0.20061     0.88522 122  64  40
-0.00469928    0.324207    0.900444 191 143  97
0.0303918  0.202734  0.874656 214 157 104
-0.246928  0.223602  0.965121 185 118  66
-0.0475602   0.214782   0.899863 105  46  28
0.0128848  0.332393   0.89564 87 49 30
-0.0627786   0.365314   0.924377 200 146 122
-0.0549552   0.366433   0.921852 174 111  67
-0.0976525    0.23428   0.919844 127  96  68
-0.0500491   0.234831   0.904275 134  80  56
-0.150036   0.24321  0.937396 164  84  47
-0.150046  0.243244  0.937443 164  84  47
-0.256054  0.254534  0.972608 108  63  24
0.021858  0.36402 0.896976 228 211 204
-0.204697  0.256399  0.956354 231 171 134
-0.202555  0.256432  0.955505 170  93  49
-0.134024  0.253037  0.933486 137  57  32
-0.13398 0.253005 0.933539 137  57  32
-0.260808    0.2648  0.975634 115  65  32
-0.0888128   0.395515   0.937775 177 107  81
0.0125445  0.242949  0.885156 86 44 28
-0.0211475   0.395945    0.91488 204 139 109
-0.200024  0.276124  0.957444 212 153 123
-0.195221  0.276671  0.955981 220 170 147
-0.206977  0.278626  0.959963 174  90  53
0.0457487  0.255266  0.876153 144  83  62
-0.0583717   0.272854   0.911851 170 112  90
-0.263143  0.296187   0.97988 177 137  75
-0.104883  0.282815  0.928345 136  94  69
-0.249964  0.297129  0.975937 125  67  43
0.00569938   0.277136   0.891813 148  66  44
-0.14172 0.295687 0.941055 108  39  23
-0.381138  0.492314  0.927177 188 190 169
-0.381135  0.492292  0.927108 188 190 169
-0.00288795    0.288481    0.895797 216 158 118
0.0032453  0.288408  0.894175 111  41  33
0.00486835   0.289522   0.893176 230 172 150
-0.240471  0.349226  0.979292 117  66  45
-0.0132033 -0.0246533   0.861927 54 60 48
0.00326684 -0.0206833   0.856813 84 93 64
-0.00833927    0.147556    0.880049 148  92  57
-0.0731312   0.354036   0.926425 208 139 106
0.00369761   0.365139   0.903095 154  72  51
-0.160726  0.172141  0.931431 182  92  55
-0.216221  0.162842  0.947656 183 120  69
0.0633853 -0.264531  0.809977 143 142 111
-0.0323845  0.0390417   0.875282 54 40 27
-0.265169  0.190061  0.967617 222 212 200
-0.00299514   -0.297241    0.826998 233 232 227
-0.0793474   0.181663   0.906973 184 112  88
-0.0217454  0.0475632   0.873075 104  57  49
-0.0494699   0.412104   0.926261 178 113  83
0.0314887  0.175871     0.871 190 130  96
-0.233198 -0.295017  0.898581 164 164 128
-0.141748    0.1924  0.928295 151 103  57
-0.0460467  -0.251993   0.846272 83 98 75
-0.186149 -0.259508  0.889577 235 237 223
-0.0529195  -0.242184   0.849352 112 121 102
-0.190405  0.475661  0.905873 75 78 69
-0.019354  0.196092  0.889809 68 38 30
-0.222844  0.068523  0.938767 172 108  47
-0.0824865   0.200127   0.910518 222 171 142
-0.0195822   -0.20509    0.84244 75 88 70
-0.107206  0.211183  0.919569 163 107  58
-0.00995363   0.0774472    0.872737 144  93  40
-0.248638 0.0847937  0.949179 233 220 201
-0.00703373   0.0809408    0.872049 167 131  81
-0.158173  0.223719  0.937826 139  52  32
-0.197914 -0.194008  0.899954 85 90 70
-0.230139 0.0989117  0.944171 211 167  80
-0.272663  0.193244  0.968976 224 217 211
-0.167794   0.10598  0.925571 236 195 165
-0.235482  0.109127  0.947224 140  87  47
-0.170244  0.108508  0.926606 196 102  48
-0.12502  0.18558 0.923203 142  94  54
0.0460305  0.182484  0.867046 226 216 215
-0.187076 -0.183162  0.898223 104 114  77
-0.226896   0.11358  0.945323 204 143  78
-0.234603  0.196677  0.958542 120  76  49
-0.15485 0.131013 0.924648 99 51 37
-0.197477  0.201759  0.947272 215 130  73
-0.103243  0.132808  0.908748 116  45  39
-0.194933  0.266243  0.954684 184  87  44
-0.138314  0.211998  0.929842 122  44  31
-0.136818   0.13567  0.918929 174 117  74
-0.070423  0.260349  0.913804 151  67  39
-0.249615  0.278468  0.973862 90 53 34
 0.0126127 -0.0593509   0.849624 114 121  88
0.0331601  0.213919  0.875527 166 113  69
-0.0928611   0.273493   0.922143 109  47  36
0.0183758  0.219729  0.880409 148 105  70
-0.0616467   0.284316   0.914436 127  47  38
-0.252189  0.224795  0.967064 211 160 115
-0.237779  0.227533  0.963267 143  67  41
0.037385 0.233578 0.875996 227 173 139
0.041516 0.292017 0.881949 194 150 103
-0.244083  -0.10514  0.924144 232 233 225
-0.194115  0.237956  0.953097 117  69  47
-0.124305  0.317196  0.938097 212 155 126
-0.0383886 -0.0263109   0.868989 76 84 60
 -0.123924 -0.0517008   0.894061 129 137  96
-0.132918  0.239199  0.931584 165  69  53
 -0.169774 -0.0071933    0.91304 82 85 58
-0.161315 0.0173539  0.913658 103  77  42
-0.204201 0.0320601  0.929005 225 221 212
-0.219971 0.0347093  0.934369 227 224 219
-0.156427 0.0379768  0.914542 213 179 142
-0.201714 0.0481236  0.930175 147  94  52
-0.0836089  0.0472486   0.892638 190 137 103
0.00479261  0.0488773   0.864994 106  83  65
 -0.25266 -0.302378  0.903669 132 140 103
-0.0153535  0.0505312   0.871093 110  58  45
0.0451368  0.277676  0.878971 139  82  55
-0.0489483  0.0643606   0.883853 97 50 40
-0.215601 0.0749631  0.937068 175  99  76
-0.0473841  0.0565448   0.877675 70 56 53
-0.186881 -0.206101  0.895781 124 129  97
-0.215623 0.0749136  0.937033 175  99  76
-0.264318  0.266603  0.976938 196 158 135
-0.0487252  0.0817378    0.88603 193 120  85
0.0275175  0.085959  0.861675 226 225 223
0.0176251 0.0748054  0.864128 222 220 221
 -0.13036 0.0955334  0.912942 177 125  77
-0.0131304  0.0807986   0.874196 201 164  83
-0.186919 -0.138782  0.902557 135 139 114
-0.150333  0.352839  0.950805 73 45 34
 0.041639 -0.126825  0.832431 116 130 104
-0.146215  0.308586  0.944361 202 135  93
-0.0321652   0.103051   0.883024 223 166 121
-0.190234  0.111359  0.933246 210 155  62
-0.234459  0.113107  0.947467 209 156  76
0.00170528   0.109121     0.8722 125  73  51
-0.267341   0.13063  0.959947 155  92  61
0.0101998  0.332049   0.89667 136  96  61
-0.0615546   0.117906   0.894655 192 131  74
-0.261141  0.131873  0.958372 165 119  57
-0.263344  0.128883  0.958807 229 220 215
-0.0866467   0.402749    0.93691 83 39 30
-0.0285321   0.130143   0.885117 150  95  74
-0.0734923   0.350695   0.925063 129  59  47
-0.178492  0.364198  0.961601 185 110  79
-0.18917 0.133421 0.935654 78 46 25
-0.205555  0.144167   0.94302 214 159  92
-0.417849  0.417081   1.05533 115 109  95
0.0175327  0.363597  0.900081 182 131  86
-0.0190131    0.14056   0.882585 80 32 30
-0.18363 0.407626 0.968297 156  80  64
-0.00537428    0.387256    0.908917 180  98  87
-0.0727499   0.168061   0.903518 184 104  71
-0.0144115   0.169431   0.884461 217 160 133
-0.305724  0.467349  0.943981 43 43 35
-0.305724  0.467349  0.943981 43 43 35
-0.149316  0.474034  0.898287 197 195 180
-0.149219  0.474062  0.898285 197 195 180
-0.103661  0.476689  0.883907 193 194 178
-0.103731  0.476553  0.883828 193 194 178
-0.185552 0.0597779  0.925923 106  68  47
-0.136131  0.074379  0.912363 85 43 31
-0.116474  0.194824  0.920345 69 41 29
-0.116455  0.194778   0.92034 69 41 29
-0.125158 0.0788373  0.909485 218 158  72
-0.221398 0.0877187  0.940138 234 192 120
0.0311892  -0.30084  0.816101 230 230 222
-0.00885935   -0.289601    0.830643 131 141 114
-0.121395  0.204112  0.923183 68 39 33
-0.118198 -0.267855  0.866269 110 125  84
0.0164009 0.0986555  0.866357 146  95  64
0.0139962  0.203235  0.879867 174 117  62
-0.0601067  -0.237914   0.852095 233 236 229
-0.233944 -0.135304  0.916357 232 231 227
-0.250918  0.116074  0.952889 218 193 162
0.0140147 -0.195222  0.829413  89 100  83
-0.189879  0.124959  0.934954 75 44 26
-0.189884  0.124943  0.934932 75 44 26
 -0.183433 -0.0676037   0.910067 144 151 117
 0.178278 -0.144218  0.787361 51 52 57
-0.012262  0.226685  0.891162 73 34 29
-0.0122873   0.226695    0.89124 73 34 29
 0.0145625 -0.0948844   0.844709 147 159 135
0.0437256  0.238472  0.874592 145  92  60
-0.0749197  0.0190118   0.885487 148 134  97
-0.0842322  0.0107506   0.888379 168 156  80
0.044689 0.248667 0.875622 152  94  57
-0.0295059   0.260663   0.901182 74 46 34
-0.115744 -0.254083  0.867665 115 127  87
-0.099107  0.275983  0.927399 177 109  70
-0.189615  0.351168  0.963778 199 136 101
-0.0510762  0.0499906   0.882728 146  97  64
-0.00672782     0.33507    0.902203 76 48 34
0.0447986 -0.212037  0.824093 235 232 225
-0.213813  0.370742  0.973409 175 131  70
-0.233222  0.312969  0.972883 205 158 116
 -0.2332 0.312916 0.972797 205 158 116
-0.122215  0.377437  0.945043 180 114  82
-0.0675054   0.382555    0.92841 173 117  66
-0.113201  0.315424  0.934093 146  70  46
-0.0383623   0.385646   0.919303 174 123  76
0.0173856  0.307468  0.890817 215 157 107
-0.168332  0.131729   0.92961 75 41 29
-0.109339  0.398284  0.943721 110  54  39
-0.202497   -0.1732  0.903942 164 168 135
-0.109072 0.0646896   0.90258 229 180 150
-0.356483  0.481141  0.943853 49 48 46
-0.059668 0.0903369  0.890486 154  92  53
-0.0846209  0.0971165   0.898719 196 138  75
0.000886146    0.169446    0.879849 201 144  73
-0.126103  0.152953   0.91777 197 121  63
-0.377693  0.482201  0.939743 62 59 52
0.0238841  0.180896  0.873996 201 140  96
-0.277413  0.493325  0.903861 46 47 42
-0.216762  0.139789  0.945231 212 185 158
-0.0173443    0.21945   0.892352 210 149  95
-0.188555  0.151818  0.937641 118  66  45
0.0390924 -0.317377  0.811918 133 137 112
0.0392002 -0.317482  0.811885 133 137 112
-0.126227  0.150529  0.916935 197 116  61
-0.155764  0.237516   0.93766 156  75  46
-0.0980506   0.245519   0.921079 61 33 29
-0.117476  0.261515  0.929462 184 105  62
-0.0376245   0.162207   0.891369 173  82  51
-0.124107 -0.271513  0.867486 168 177 134
0.0349761  0.253744  0.879279 92 37 34
 -0.18914 -0.263205  0.889034 235 235 223
-0.09976 0.283277 0.925943 67 42 37
-0.152878  0.300604  0.945156 123  61  48
-0.0532883   0.296606   0.912388 152 100  60
-0.251862  0.327756  0.980477 138  88  61
-0.142875  0.340976  0.946708 172 122  63
0.00186953   0.334653   0.899864 78 54 42
-0.150156  0.360446   0.95196 169 110  68
-0.150127  0.360538  0.951996 169 110  68
-0.0319281   0.352486   0.914133 183 122  68
-0.178939  0.386762  0.964719 177 115  64
-0.364768  0.462893  0.963324 105 102  87
-0.398387  0.469155  0.968232 49 49 49
-0.20117 0.153437 0.942552 210 155  55
-0.0546566   0.160723   0.897348 157  97  71
-0.263829  0.201731   0.96995 138  80  42
-0.0486249 -0.0225144   0.873585 164 165 131
 -0.162048 -0.0117932   0.910482 144 133  77
0.173466 -0.35452 0.765067 235 236 230
0.0176216  0.247489  0.884024 111  68  52
-0.105355 -0.331272  0.854576 123 141  99
-0.144905 0.0346265  0.910169 94 72 51
-0.0142409  -0.194226    0.84316 234 235 229
-0.162587  0.102065  0.923495 232 195 168
-0.256396  0.206013  0.968635 136  85  54
0.0249179  0.201882  0.880298 198 144  82
-0.192443  0.219127  0.949271 202 151  59
-0.114318  0.476214  0.899566 50 49 45
-0.192734  0.218888  0.948824 202 151  59
-0.0838168   0.475921   0.884777 41 41 39
-0.109063  0.384103  0.941484 183 125  85
-0.0385419   0.218784   0.898094 91 47 38
-0.390622  0.473993  0.965052 214 208 186
-0.390622  0.473993  0.965052 214 208 186
-0.298578  0.480816  0.928963 214 204 179
-0.290717  0.485745  0.924696 44 43 39
-0.162302 0.0427851  0.916726 181 125  76
-0.161995 0.0417931  0.916325 181 125  76
-0.0517664   0.013447   0.879447 45 50 43
-0.065829  0.275817  0.913556 211 155 138
-0.0659174   0.275367   0.913183 211 155 138
-0.0297176   0.326589   0.907238 109  66  47
-0.210337  0.107205  0.939165 156  99  54
-0.27888 0.497911 0.904657 93 92 87
-0.297141  0.467125  0.946513 43 43 43
-0.0179229   0.164712   0.885826 209 164 145
 0.169168 -0.352206  0.768216 233 234 228
 0.169168 -0.352206  0.768216 233 234 228
-0.0653029  -0.194143   0.859531 142 152 117
-0.00864852    0.232004    0.889701 212 163 148
-0.150571  -0.13515  0.893151 159 166 133
-0.0584897   0.353167   0.920948 194 118 104
  0.225573 -0.0901743   0.790287 30 35 41
  0.225368 -0.0903222   0.790044 30 35 41
-0.0535581    0.40136    0.91862 172 106  82
-0.243091  0.283871   0.97079 151  77  52
-0.0859901   0.133175   0.902412 226 184 162
-0.107886  0.275505  0.927246 66 39 30
-0.107886  0.275505  0.927246 66 39 30
-0.169761 -0.246157  0.886336 73 89 63
-0.169601 -0.246047  0.886509 73 89 63
 3.29914 -2.88189  9.77671 109 111 100
0.0273566  0.357113  0.894483 126  87  72
 -0.163474 -0.0329582   0.908476 64 70 42
 -0.057971 -0.0264738   0.875978 116 120  85
0.0388154  0.321573  0.886597 164 106  86
 -0.138558 -0.0280584   0.901483  96 105  76
-0.104862 0.0549381  0.900371 210 156 130
 -0.138558 -0.0280584   0.901483  96 105  76
-0.118204 -0.379782   0.85149 182 182 180
-0.24891 0.322716 0.978201 136  91  52
0.00777747 -0.0195305   0.855516 186 187 145
-0.0686819 -0.0209809   0.880072 73 86 60
-0.0686476 -0.0209708   0.880067 71 80 53
-0.0960077   0.133181   0.906647 242 188 164
-0.234137  0.368744  0.979827 159  97  74
-0.214229  0.132326  0.943588 171 107  69
-0.0609764   0.328826     0.9195 170 103  77
0.0412644  0.140895  0.863835 145 103  91
 0.0371709 -0.0116225    0.84625 229 228 223
-0.263214  0.131622  0.958845 134  92  68
0.0178939  0.329415  0.894065 169 127 102
-0.0313394  -0.013676   0.869003 191 175 123
-0.221506 0.0550106  0.937028 195 129  81
-0.200428  0.334995  0.965288 191 122  81
0.229058 0.342326 0.841223 207 222 229
0.0403994  0.146775  0.863567 135  85  58
-0.0326407 -0.0091076    0.86995 164 152 110
-0.131114  0.382942   0.94861 138  72  40
-0.0181303  -0.282328   0.829897 120 134 111
-0.158702 0.0588855  0.917466 176 129  73
-0.202151  0.389564  0.971961 192 115  95
-0.202149  0.389567  0.972084 197 119  97
-0.217651  0.143728  0.946015 236 190 164
-0.0206976   0.150588   0.884516 170  99  69
-0.187883  0.340173  0.961567 179 107  83
  0.0239453 -0.00179284    0.852436 148 130 106
0.0451568  0.154626  0.865191 180 117 102
  -0.168569 -0.00919417     0.91294 65 66 35
  -0.167336 -0.00934922    0.912112 176 170 112
  -0.186044 -0.00693662    0.918123 80 72 53
-0.228366  0.345473  0.975322 201 149 102
-0.215552  0.149336  0.945992 110  41  25
  -0.203754 -0.00618389    0.923682 145 143 104
-0.150476  0.153928  0.926065 151  65  40
  -0.121065 -0.00129266    0.899821 104 110  82
-0.21612 0.151681 0.946439 235 168 141
 -0.157971 -0.0017026   0.910213 94 76 36
-0.0850824   0.352935   0.932016 80 29 26
   -0.154108 -0.000107642     0.909112 62 56 24
-0.0469272  -0.254206   0.845253 242 244 241
-0.201043 0.0623385  0.931495 109  51  39
-0.0451053  -0.249667   0.846167 155 165 130
-0.0430254   0.160008   0.893073 166  79  49
   -0.160527 -0.000375008      0.91099 83 77 43
-0.257277  0.154185  0.960226 228 188 153
-0.0423789   0.161184   0.892951 232 155 125
-0.238171  0.359728  0.979928 120  61  47
-0.212582  0.156561  0.945881 122  50  38
0.0348932  0.165445  0.868491 229 183 150
0.0349317  0.165408  0.868586 229 183 150
 -0.171719 0.00740406   0.915895 83 69 43
 -0.185912 0.00626491     0.9199 226 228 206
-0.113227 0.0662582  0.904498 178 103  74
-0.156425  0.162207  0.929199 186 103  71
-0.156446  0.163996  0.929479 224 144 111
-0.38941 0.421556  1.03831 178 176 177
-0.0189236  0.0174799   0.868798 105  99  65
 0.172697 0.0781126  0.815398 30 34 37
-0.206054 0.0102913  0.926822 184 160 114
-0.235517  0.362328  0.979117 203 146 129
0.0345064   0.17179  0.869734 129  73  48
-0.0218864  0.0210237   0.870162 97 90 61
-0.258884  0.163966  0.962193 242 199 165
-0.163488 0.0153694  0.914017 95 81 44
-0.257605  0.164687  0.961895 176 128  92
-0.153257 0.0170288  0.910777 163 146 102
-0.211101 0.0140824  0.929596 235 219 193
0.00574955  -0.212119   0.832857 106 109  98
-0.184794 0.0160415  0.921173 226 211 204
-0.182069 0.0167606  0.920042 165 142  98
-0.0271901  0.0240622   0.871992 157 153 118
-0.00802788    0.373353    0.907895 143  65  53
-0.14355 0.169629 0.925536 222 137  96
-0.0695862   0.374423   0.928188 205 140  98
-0.182698  0.022082  0.921098 144  91  60
 -0.16371 0.0236778  0.914765 203 153 118
-0.0115717   0.173603    0.88423 227 166 119
-0.23274 0.374696  0.98031 201 149 128
-0.0937261   0.376436   0.934852 142  96  81
-0.17212 0.379651 0.961819 147  78  36
-0.177922 0.0284079  0.920365 100  52  38
0.0320619  0.176146  0.870991 216 161 131
-0.0019024   0.387922   0.907873 166 101  71
-0.0260834    0.03499   0.873114 242 237 215
-0.259112  0.167697  0.962758 142  72  47
-0.189417 0.0280204  0.923809 157 112  89
-0.0635162  0.0326842   0.884496 80 74 40
-0.175112 0.0293809  0.919622 250 225 203
-0.159418  0.171515  0.931233 176  95  65
-0.0132515  0.0371179   0.869378 140 126  81
-0.189149 0.0293349   0.92398 98 53 34
-0.207982 0.0314816   0.93843 127  92  70
-0.201303 0.0299856  0.927994 176 111  83
-0.218585 -0.202759  0.905854 101 109  72
-0.136156 0.0328755  0.907679 124 119  77
-0.215835  -0.20237  0.904805 172 174 134
-0.250857  0.171024  0.960325 225 175 126
-0.200653 0.0321348  0.928239 217 173 146
-0.257472   0.17236  0.962986 227 177 152
-0.263784  0.172924  0.964924 246 222 218
-0.201698 -0.198737  0.899915 84 90 78
-0.165008 0.0357545  0.917014 200 147 105
0.0385977 -0.181236  0.826415 199 197 185
-0.249705  0.173122  0.960373 228 180 134
-0.0188861    0.18023   0.887178 173 118  64
-0.105154 0.0622707    0.9017 230 173 143
-0.0156503  0.0442473   0.870497 255 239 219
-0.0182945  0.0448277   0.872304 237 216 195
0.0451763  0.184809  0.867745 133  95  72
-0.24914 0.176954 0.960596 237 179 131
-0.102268 0.0639662  0.900796 245 207 170
-0.0833546   0.182387   0.908328 227 165 144
-0.0975457  0.0641383   0.898823 227 178 145
-0.214166  0.038488  0.932607 122  76  60
 0.208904 -0.161911  0.785711 129 139 138
-0.252886  0.178232  0.962459 165 109  76
-0.364109  0.460848  0.966101 49 50 45
-0.104578 0.0446705  0.899164 195 151 122
-0.104578 0.0446705  0.899164 195 151 122
-0.246547  0.179471  0.960105 237 191 139
-0.216761 0.0596737  0.935857 126  61  39
  1.69625 -0.599746   2.98897 39 41 53
-0.0839123   0.186153   0.909536 231 180 159
-0.00661483   0.0518564    0.868209 103  54  39
0.00333533    0.07051   0.867823 142  97  56
0.00728025  -0.165886    0.83659 151 163 127
-0.15884 0.185912 0.933305 176 108  37
0.00630659  0.0521699   0.864666 244 235 230
-0.0846856   0.189665   0.909853 249 195 171
-0.00515332   0.0540447    0.868706 117  64  48
-0.00377941   0.0539031    0.868283 195 144 117
-0.106619 0.0516264  0.899842 50 40 39
-0.155472 0.0513751  0.915828 136  59  29
-0.0226824  0.0578557   0.875924 160 103  84
-0.108144 0.0546473  0.901463 150 101  69
-0.145171  0.190152  0.929542 123  62  34
-0.154017 0.0535497  0.915593 124  59  27
 -0.15391 0.0536131  0.915515 124  59  27
-0.0822574    0.19241    0.90934 164  98  72
-0.0821629    0.19244   0.909731 164  98  72
-0.00112104   0.0614808    0.868072 95 58 39
-0.26924 0.189089 0.968651 225 216 211
-0.000971389    0.0615472     0.868616 95 58 39
-0.0116415  0.0618859   0.871667 217 165 143
-0.185323 -0.152635  0.901748 119 117  92
-0.0248886  -0.142472   0.851956 117 130 104
-0.185098 0.0559774  0.925779 87 44 25
-0.0492095  0.0902145   0.887164 145  73  58
0.0519051  0.198327   0.86723 184 142 118
-0.270565   0.19002  0.969266 154 127 116
-0.403179  0.464385   0.96958 56 55 51
-0.229178  0.054299  0.939521 143 106  88
-0.270613  0.189995  0.969172 135 114 109
-0.401331  0.464897  0.969369 155 156 150
-0.25159 0.190544 0.963179 156  97  53
-0.251463  0.190627  0.963375 156  97  53
-0.112571 0.0616654  0.903516 126  64  43
-0.0410467    0.19789   0.897091 183 119  81
-0.218281 0.0595991  0.936219 209 149  77
-0.132112 0.0631617  0.910216 144  97  51
-0.174414 -0.138949  0.899236 63 68 46
-0.210477 0.0762552  0.935848 229 175 137
-0.266613  0.193049  0.968508 111  68  51
-0.204226  0.469499   0.91708 179 181 176
-0.266633  0.193122  0.968638 121  78  59
 -0.17572 0.0616081  0.923403 137  84  42
-0.210433 0.0763804  0.936162 229 175 137
-0.173311 -0.136998  0.898968 50 59 32
-0.0484976  0.0833562   0.886158 198 131 105
-0.126288 0.0649354  0.908478 223 160 116
-0.00498939      0.2015    0.885794 139  77  56
-0.185798 -0.132953  0.905156 232 234 223
-0.00056045   -0.121365    0.845836 159 152 126
-0.399685  0.508653   1.04496 237 226 204
-0.206834 0.0639984   0.93328 188 124  89
-0.383545 0.0582535  0.996185 22 20 21
-0.272951   0.19683  0.970881 236 223 215
0.00929229  -0.118002   0.843761 110 117  86
 -0.22951 0.0646105  0.940809 177 112  54
-0.0425034  0.0745761   0.883245 233 158 126
-0.0849788   0.201895   0.911639 180  87  56
0.106247 0.689393  1.23273 223 218 199
-0.106463 0.0733829  0.902764 171  86  55
-0.21521 0.198498 0.953047 220 160 124
-0.240366 0.0692076  0.944668 236 223 214
-0.0767474   0.203196   0.909056 161  93  72
-0.212884 -0.120326  0.915084 160 160 126
-0.263889  0.198341  0.967773 156 104  65
-0.230812 0.0727584  0.942171 173 126  58
-0.194467 -0.115698  0.907706 163 170 137
-0.0223046  0.0813736   0.877219 191 146 105
-0.0473851   0.080699   0.885471 189 122  96
-0.168351 0.0763801  0.922571 168 107  53
-0.228481 -0.114691  0.917264 232 233 227
-0.213236 0.0752664  0.936456 233 169 142
0.0307485  0.207507  0.874912 139  72  43
-0.0118974  -0.101435    0.85249 174 181 165
0.0233685 0.0856166  0.864382 122  63  49
-0.269176  0.200235  0.970521 206 146 118
-0.0358709  0.0846109    0.88193 225 175 142
-0.211243  0.202623  0.951971 171 122  92
-0.381822 -0.119659  0.970591 231 226 220
-0.175786  0.203814  0.942456 77 30 14
-0.0781554   0.207127   0.910277 167  93  66
0.0278392 0.0891874  0.861794 227 224 219
-0.177032   0.20476  0.940752 206 135  81
-0.0964265  0.0846972   0.900724 216 132 108
-0.214632  0.203897  0.953094 232 182 149
-0.223867  -0.10341  0.918207 157 139 119
-0.10354 0.207911 0.918373 169  97  38
-0.154023  0.474502  0.898039 193 194 180
-0.162944 0.0834424  0.921697 139  68  46
0.0315185  -0.30866   0.81558 157 154 121
-0.154012  0.474623  0.898019 193 194 180
-0.00665019  -0.0870208    0.851638 123 137 111
-0.0452936  0.0896506   0.885912 173 100  67
-0.163776 0.0852676  0.922167 227 190 161
-0.230416 0.0831637  0.943132 203 145  63
-0.0857162  -0.308438   0.851488 119 135 109
-0.168621 0.0862307  0.923332 247 197 164
 -0.196059 -0.0939713   0.910968  91 106  67
-0.245866 0.0848216  0.948353 163 111  72
 -0.196775 -0.0931603   0.911761 149 160 126
-0.162009 0.0890395   0.92154 105  44  26
-0.214283  0.208534  0.953698 163  99  51
 -0.21252 0.0879841  0.937889 163  79  45
-0.230542 0.0882781  0.944983 208 146  71
-0.216114 0.0885441  0.938994 224 158 108
-0.278312 -0.307427  0.911468 162 158 146
-0.246296 0.0885567   0.94886 222 175 149
-0.203907    0.3931  0.973124 195 115  90
-0.258335  0.208336  0.967755 116  63  29
-0.278359 -0.307519  0.911551 162 158 146
-0.164635 -0.076071  0.903962 149 156 112
0.013468 0.100835 0.867433 137  70  53
0.170015 0.105815 0.815804 29 34 40
-0.135949  0.404197  0.952773 226 166 138
-0.280509 -0.304144  0.912439 181 178 171
-0.0502407 -0.0669094   0.868918 53 69 43
-0.280459 -0.304211  0.912386 181 178 171
0.0143271  0.102178  0.867289 136  74  51
-0.264931  0.212372   0.97042 173 134  93
-0.391176  0.410101   1.03831 177 171 157
-0.0347827   0.218882   0.897319 162 102  94
 -0.147592 -0.0640273   0.900148 141 153 117
-0.0347827   0.218882   0.897319 162 102  94
-0.167612 0.0977075  0.924597 243 194 162
 -0.162969 -0.0633691   0.904046  97 103  65
-0.0410717   0.102677   0.885959 184 122  85
-0.252858  0.095723  0.952875 234 220 219
-0.0491997   0.222886   0.902311 209 149 123
-0.00974687    0.104712    0.875622 107  78  64
-0.00981392    0.104671    0.875539 107  78  64
-0.205604  0.221125  0.952355 153  79  40
-0.176012 0.0987683  0.927394 147  64  32
-0.149055  0.222431  0.934381 240 150 123
 0.0262207 -0.0454718   0.847539 232 233 227
-0.149087  0.222475  0.934639 240 150 123
 -0.24718 0.0968548   0.95003 228 190 171
-0.202201  0.222212   0.95172 219 157 116
-0.205764  0.224761  0.952935 215 163 106
-0.197242  0.225279  0.950501 142  70  22
0.0350834  0.109049  0.859899 169 124  85
0.0402621  0.231636  0.874795 141  81  44
-0.217714  0.102095  0.940999 101  57  32
-0.201818  0.227966  0.952329 137  67  33
-0.217777  0.102017  0.940883 101  57  32
0.00475471   0.125189   0.875223 123  53  41
 -0.107601 -0.0401484    0.88963 124 135 101
0.0360154  0.114086  0.861499 222 215 209
-0.159251  0.107269  0.922642 231 192 163
-0.0951245   0.111343   0.903364 230 156 121
-0.0129555 -0.0297505   0.861615 81 83 62
-0.140409  0.231719  0.933065 231 170 149
0.158548 0.489981 0.805131 182 182 170
-0.138851  0.231608  0.932573 108  31  25
-0.137307  0.231395  0.932083 200 118  96
-0.16249 0.109406 0.924133 175  94  65
-0.161076  0.109712  0.923856 215 140 108
-0.0332085  -0.269896   0.836943 237 240 231
-0.161178  0.109654  0.923716 218 141 115
-0.156246  0.109921  0.923293 190 127  86
0.270721 0.450352  0.83998 181 185 184
-0.256222  0.231576  0.970499 145  79  47
-0.147993  0.236582  0.935718 224 192 167
0.122338 0.493019 0.809487 73 70 65
-0.222278  0.440509  0.963618 24 19 15
0.122358 0.492926 0.809459 73 70 65
0.0572589 -0.243855     0.815 238 232 218
-0.247159  0.236066  0.967502 206 141 109
-0.223037  0.114034  0.944547 140  88  48
-0.0840401   0.118647   0.901184 161  75  40
-0.215736 0.0827625  0.938023 233 187 154
-0.108756  0.242392  0.924627 255 196 153
-0.0841075   0.121072   0.901624 182 109  76
-0.0964159   0.120771   0.905193 166  72  46
 0.18014 0.454494 0.860537 113 117 103
-0.385399  0.113744   1.00606 198 189 180
-0.0625577  -0.233177   0.853741  99 121  98
-0.0154829   0.125869   0.879931 196 144 105
-0.240732  0.241343  0.966014 224 156 109
-0.00282819    0.246365    0.890678 218 151 108
  -0.2478 0.0878315  0.949255 179 133  99
-0.224248  0.119022   0.94512 171 111  59
-0.214955 0.0903729   0.93873 153  73  36
-0.130823  0.245255  0.931618 220 174 148
-0.163618 0.0965298   0.92337 205 151 125
-0.0457917  -0.227166   0.848378 143 151 112
-0.00519779    0.248837    0.891616 174 104  79
-0.269653   0.12257   0.96164 234 228 228
-0.131944 0.0996248  0.912846 153  89  43
-0.249902  0.246016  0.969306 183 133 100
 -0.15482 0.0988522  0.920254 185  86  54
-0.126421  0.100341  0.912049 164 114  81
0.0146216  0.255015  0.886302 139  92  66
-0.456635  0.447498  0.995176 244 231 212
-0.127884   0.25931  0.932498 152  71  44
-0.0185281   0.147062   0.883233 227 175 151
-0.263895  0.256758  0.975324 209 206 189
-0.414048  0.457057  0.982226 158 158 150
-0.14994 0.258967 0.938601 203 134  79
-0.0794985   0.261268   0.917633 216 138  99
-0.116174 -0.378381  0.852083 204 205 200
-0.200198 -0.224984  0.897164 128 134 100
0.0337731  0.153983  0.867577 189 131  93
-0.126655  0.262989  0.932521 131  58  26
-0.242387 -0.219805  0.911978 166 156 144
-0.411934  0.458735  0.978796 45 44 42
-0.126607  0.262916  0.932528 127  52  29
-0.0635221   0.111743   0.894315 201 136  78
-0.239364  0.147201  0.952315 187 129  66
-0.239116  0.147208  0.952828 187 129  66
-0.268555  0.261712  0.977525 185 154 133
-0.262229   0.26287  0.975733 220 172 136
-0.193041 -0.215004  0.896105 134 137 106
-0.218411  0.114884  0.942597 105  48  31
-0.0801515   0.267623   0.917833 125  53  28
-0.0284568   0.269143   0.901358 162 115  85
-0.363213  0.461667  0.964609 161 163 152
-0.100804  0.273038  0.925133 199 130  97
-0.232661 -0.212509  0.908925 147 143 105
-0.166219  0.274575  0.946546 84 41 25
-0.314074  0.463379  0.951175 72 69 54
-0.091948  0.275668  0.922317 190 113  61
-0.173065  0.274986  0.948562 193 117  93
-0.309222  0.463957  0.950077 55 55 45
0.0458047  0.282115  0.879508 162  99  66
-0.30421 0.464258 0.948618 52 52 42
-0.416507  0.461678  0.975547 172 173 168
-0.254398    0.1292  0.955777 157 108  52
-0.366853  0.463013  0.963348 165 165 157
-0.0590351  -0.187012   0.857414 151 166 137
-0.362161  0.463187  0.962118 180 178 165
-0.310861  0.464395  0.949122 158 161 152
-0.169804     0.171  0.934268 214 146  83
-0.303567  0.464938  0.947133 173 172 167
-0.0614351   0.288677   0.915098 201 125 102
-0.0485627    0.14156   0.892921 160 109  90
0.0307054  0.289871  0.884125 174 124  87
-0.363423  0.463906  0.961749 53 51 39
0.035873 0.292106  0.88391 87 51 29
-0.363345  0.463983  0.961868 53 51 39
0.0357362  0.292163  0.883506 87 51 29
-0.0141109   0.181746   0.885969 133  74  58
-0.36283 0.464468 0.960213 185 187 176
-0.0332249   0.149474   0.888591 223 151 101
0.0381674 -0.164765  0.827998 232 235 228
0.0226148  0.299034  0.887964 125  58  41
-0.126273  0.298336   0.93652 122  50  38
-0.126209  0.298313  0.936555 121  53  34
-0.0181164   0.152681   0.883481 165  99  75
-0.24413 0.298153 0.974192 157  92  60
0.0313647  0.156536  0.868556 174 133 103
-0.19684 0.298927 0.959718 208 145 110
-0.126354  0.299745  0.937196 199 132 116
-0.0828614  -0.166642   0.867898 142 156 130
-0.236616 -0.175884  0.914529 226 228 227
0.0400667  0.197939  0.870823 146 104  56
-0.0217899   0.164418   0.886495 171  90  60
-0.263046  0.298681   0.98028 142 106  70
-0.152093  0.164288  0.927852 212 124 100
-0.346741  0.466365  0.954066 182 184 170
-0.16007 0.166129 0.930661 219 155 120
  -0.1209 -0.148394   0.88148 60 69 52
-0.246035  0.301735  0.975169 95 43 30
-0.24601 0.301753  0.97514 95 43 30
-0.014414   0.30629  0.898745 124  61  52
-0.305145  0.467848  0.943021 165 167 154
-0.350125  0.467092  0.953959 52 52 50
-0.29433  0.46862 0.939656 173 171 159
-0.239725  0.308892  0.973918 213 137 101
-0.231483  0.308888  0.971318 224 165 121
-0.241296  0.309626  0.974858 143  54  40
-0.211974 -0.135306  0.910873 235 233 220
-0.115662  0.186494  0.918797 74 38 24
-0.210309    0.1847  0.949135 140  65  46
-0.150258  0.318012  0.947858 111  41  33
-0.0100427  -0.116739   0.850042 111 124 104
-0.0860694   0.190504   0.910506 183  86  53
-0.262801  0.186216  0.966606 141  92  59
-0.259844  0.189067  0.965682 150  96  50
-0.267739  0.189877  0.968895 109  71  60
-0.267753  0.189865  0.968941 109  71  60
-0.189886 -0.210251  0.895267 116 125  96
-0.00103714     0.21047    0.885534 155  88  61
-0.194027  0.210355  0.947154 209 149  87
-0.262476  0.210762  0.969266 145  93  36
-0.0448449   0.478326   0.867494 44 42 30
-0.232083  0.216111  0.960429 181 120  73
-0.204234  0.216867  0.951293 171 102  73
  0.043886 -0.0728902   0.838038 240 242 229
-0.303484  0.511402    1.0013 37 34 17
-0.134463  0.225444   0.93037 213 139 100
-0.135899   0.22653  0.930935 140  60  37
-0.0111982   0.229999   0.891222 145  54  49
-0.0410979    0.22928   0.900461 181 117  82
-0.266833  0.241037  0.974385 235 216 202
0.0596991  0.484567  0.836342 183 182 177
 -0.185095 -0.0636688   0.911084 51 56 36
-0.205122 -0.195989  0.901938 137 146 103
0.0032554  0.484036  0.849939 49 50 45
 -0.223016 -0.0606547   0.923164 229 225 224
-0.102374  0.236885  0.921384 64 26 17
-0.132333   0.48027  0.880858 231 223 204
 -0.190143 -0.0551879   0.914355  99 103  80
0.111518 0.489614 0.825615 161 161 153
0.109362  0.48734 0.820611 173 169 166
0.0129207  0.485177  0.844505 163 165 160
-0.254118  0.255048  0.971962 207 166 120
-0.245578  0.241252  0.967692 130  48  26
0.0582786  0.486765  0.832232 175 178 171
-0.37728 0.479472 0.942945 170 167 158
-0.175404  0.250509   0.94655 138  89  59
 -0.112555 -0.0329874    0.89261 63 77 51
-0.374615  0.479841  0.942398 174 174 166
-0.374674  0.479659  0.942242 174 174 166
0.0404292  0.257696  0.878011 171 112  78
-0.266041   0.26112  0.976618 217 194 180
0.0704911  0.488627  0.827501 159 162 153
0.0705207  0.488745  0.827646 162 163 157
 -0.194801 -0.0323853   0.917682 178 173 141
-0.243513  0.265624  0.970386 169 106  63
-0.195136  0.266231  0.954665 168  78  43
-0.0232276    0.26359   0.899787 159 114  81
-0.25055 0.262275 0.972353 170 128  80
0.108004 0.489771 0.816525 192 188 179
-0.25055 0.262275 0.972353 170 128  80
-0.15012 0.265101 0.940156 112  45  26
 -0.156792 -0.0162739   0.908316 98 89 56
-0.0818205   0.267284   0.918398 186 119  93
0.109646 0.490764 0.815241 186 184 171
-0.32515 0.483088 0.927687 174 174 162
0.117937 0.491549 0.812822 183 186 177
  -0.173259 -0.00562156     0.91424 75 74 43
-0.123227  0.293268  0.934973 198 123  83
-0.177088  0.277822  0.950614 149  65  39
 0.12009 0.492128 0.810806 63 62 57
0.043802 -0.15879 0.828151 117 127  90
  -0.183785 -0.00148548    0.918164 74 70 33
0.0419316 -0.157412  0.828629 127 138 104
0.0369926  0.288805   0.88303 141 107  79
   -0.233266 -0.000103405     0.934503 169 149 124
   -0.233376 -0.000166568     0.934343 169 149 124
 0.181123 -0.144535  0.789445 209 219 221
-0.142913   0.29749  0.940517 208 144 100
-0.000624946    0.0122149     0.860874 169 169 143
-0.123469  0.295416  0.935309 175  96  63
-0.0213083   0.303394    0.90313 120  52  41
-0.186442 0.0136468  0.920914 156 142 107
-0.210574  0.296669  0.963616 157  93  29
-0.108555  0.307651  0.932911 175 115  78
-0.156429 0.0245026  0.912949 173 133  97
-0.246865  0.309342  0.976359 216 168 128
-0.162758  0.312221  0.949811 115  54  33
-0.254804  0.312947  0.979464 94 63 35
 0.177382 -0.103238  0.794356 73 74 79
-0.175956  0.328544  0.956141 165 103  88
-0.0163087  -0.101982   0.853941 101 113 101
-0.174697 0.0314213  0.919509 130  64  48
-0.0545879   0.334741   0.918278 161  86  55
-0.250485  0.332628  0.980383 131  80  53
-0.0636074   0.334817   0.921105 171  92  61
-0.101069 0.0400418  0.897408 51 47 44
-0.251512  0.337004  0.981025 209 173 151
-0.138891 0.0386371  0.909283 42 36 24
-0.232833  0.338473  0.975572 161  93  58
-0.230565  0.340937  0.974646 159  97  56
-0.0141525  0.0455566   0.870556 85 65 54
-0.227736  0.343911  0.974357 159 103  56
-0.245797  0.349972  0.981202 129  61  42
-0.0668305   0.044892   0.887304 199 153 117
-0.0896094 -0.0807376   0.879389 57 69 45
-0.222747 0.0391678  0.935891 230 232 227
 -0.195968 -0.0798991   0.912382 88 99 65
-0.158286 0.0477755  0.916323 171  93  45
-0.0488649 -0.0548669   0.870075 59 73 58
-0.0108736  0.0564476   0.869903 166 125 107
0.00431915   0.374899   0.904113 137  82  52
-0.0130875   0.061184   0.872127 137  74  56
-0.118042   0.38647  0.944529 128  48  39
-0.361416  0.462023  0.963488 52 48 47
-0.168663 0.0294315  0.917862 112  65  49
0.00125473  0.0393576   0.864596 222 224 223
-0.0578882  0.0430258   0.884384 56 45 25
-0.045139 0.0555001  0.881795 54 39 34
-0.185438  0.142943  0.935269 160 105  74
0.0255161   0.33905  0.892729 143  65  52
-0.0209932    0.33907   0.907275 96 56 30
-0.219516  0.147374  0.947099 171  97  68
-0.150353  0.167849  0.927814 115  30  25
  -0.157809 -0.00762653    0.909309 139 127  77
-0.257105  0.167127  0.962159 211 155 130
-0.264925  0.169825  0.963159 226 222 211
  0.04109 -0.314691  0.810284 229 226 209
-0.249316  0.196184  0.963337 142  79  38
-0.217408   0.20081  0.953358 184 108  58
-0.205215 0.0281321  0.928771 142  96  81
 -0.12498 -0.279075  0.867171 103 117  82
-0.00917465    0.217193    0.888949 230 190 165
-0.157823  0.227382  0.937793 215 129  82
-0.0958227  0.0519008   0.897015 48 30 26
-0.222372 0.0467532   0.93641 236 209 182
-0.0897013   0.439119   0.942971 199 196 191
0.0283988  -0.18924  0.831963 142 146 131
0.0144125  0.158533  0.874472 72 49 35
-0.0504794   0.219931    0.90191 126  63  48
0.00951389  0.0756139   0.866031 195 155 106
-0.166082  0.069729  0.920904 172 122  73
-0.211313 0.0384235  0.932298 228 221 213
0.000538486    0.273956    0.892585 212 144 125
-0.242745 -0.176351  0.915914 156 145 127
-0.171707  -0.16996   0.89514 132 144 104
-0.170881  -0.15975  0.895266 85 96 62
0.0023136 -0.144916  0.843658 139 147 124
-0.0859012   -0.12674   0.872293 100 111  71
-0.133408 -0.382748  0.856333 53 56 63
-0.197525 -0.118039  0.908767 88 94 66
0.057372 0.285025 0.875666 223 218 214
-0.242613 0.0984851  0.948482 192 129  86
-0.224154 -0.109754  0.917757 237 236 215
-0.0138883   0.067832    0.87321 216 166 131
 0.017069 -0.294135  0.821311 147 152 129
-0.201498  0.108634  0.936523 170 130  71
 -0.164805 -0.0729518   0.904601 161 170 125
-0.0421981   0.307105   0.910512 123  82  64
-0.160867  0.309264  0.948827 159  95  68
0.0204137  0.135917  0.869386 141  76  56
-0.256719  0.129277  0.956355 212 172 102
-0.256638  0.129222  0.956411 212 172 102
-0.0439791  0.0829098   0.879748 96 43 37
-0.158324 0.0787655  0.919382 126  53  34
-0.0653546   0.282357    0.91511 217 165 126
-0.242171 0.0792998  0.946414 188 139  81
-0.0319951   0.217828   0.897517 104  43  38
0.0184575  0.219747  0.880578 148 105  70
-0.252264  0.224995  0.967686 211 160 115
-0.232059  0.227743  0.962181 167 108  64
-0.238119  0.231276  0.964042 166  89  63
-0.0530204   0.327144   0.916148 186 117  78
0.0102047   0.33206  0.896673 146  98  60
-0.146625   -0.2594  0.877195 240 238 225
-0.17542 0.240772 0.944971 194 136  62
-0.0130573   0.338843   0.905152 93 55 36
-0.0419901   0.340326   0.914557 190 135  94
0.0407323 -0.213532  0.822784 114 124  99
-0.268649  0.115685  0.958616 122  68  56
0.00163404   0.260918   0.890916 69 35 33
-0.268708  0.115655  0.958536 122  68  56
0.0414918  0.261851  0.879182 220 183 157
-0.246248 -0.109329  0.924504 131 119  93
-0.00885011    0.384246    0.908729 204 137 128
0.0123951  0.295325  0.890915 209 149  99
-0.0387043   0.299243   0.909066 103  49  39
-0.165057  0.309229  0.950709 77 48 32
0.162982 0.492912 0.800963 70 70 62
-0.201791 -0.110385  0.910968 232 235 226
-0.172781  0.335585  0.958539 118  62  45
 -0.221883 -0.0743494    0.92007 108 111  80
-0.103397  0.358064  0.937247 66 42 32
-0.353851 -0.395138  0.927104 134 145 190
  -0.20825 0.00656952   0.926896 168 147  84
-0.104015 0.0391728  0.898241 121 102  88
-0.104094  0.039167   0.89815 121 102  88
-0.000600861     0.399333     0.908609 210 199 195
-0.0130152   0.399971   0.912664 190 135 105
-0.0471759  0.0575341   0.883115 196 141 121
-0.246017 0.0648795  0.946424 104  57  47
-0.246005 0.0648995  0.946398 104  57  47
-0.213775 0.0888757  0.938274 176  96  63
-0.195805 0.0939484  0.933744 120  76  51
-0.124125  0.114101   0.91292 199 148  82
-0.221476  0.130514  0.944902 199 129  95
0.00175528   0.144588   0.877351 76 43 34
0.00186186   0.144683   0.877295 78 44 34
-0.15551 0.060313  0.91691 134  92  54
-0.155475 0.0601918  0.916526 128  89  48
-0.160958  0.399706  0.960639 73 40 31
-0.103667  0.404056  0.942653 194 126  87
-0.178785 0.0670633  0.927531 123  83  47
0.185515 0.446218 0.867941 147 150 143
 -0.178498 -0.0221636   0.913523 74 77 58
-0.415165  0.459749  0.979474 60 59 55
-0.0147921   0.145291   0.881619 220 175 152
-0.0455755  0.0839491   0.885112 90 37 31
-0.404382  0.470074  0.940189 47 49 44
-0.269378  0.209501  0.969817 229 218 212
-0.0123068   0.226685   0.891076 73 34 29
0.0112304  0.107521  0.868552 130  77  61
-0.0457388   0.236647   0.902224 91 45 32
0.0309983 -0.312684  0.815869 235 234 229
-0.0172111   0.219602   0.892476 206 142  94
-0.125991 0.0873926  0.910669 92 50 34
-0.221214 -0.112331  0.916529 105 112  71
-0.245708 -0.258474  0.906709 241 234 226
-0.242685  0.086781  0.947339 142  85  65
 -0.172643 -0.0800479   0.905223 75 90 61
-0.262516  0.126317  0.958185 228 222 222
-0.0649067   0.345745   0.921591 202 141 120
-0.196547  0.351173  0.965864 140  59  38
-0.0547723   0.281654   0.913695 218 168 133
 -0.2095 0.284695 0.961362 212 155 110
-0.230793  0.299415  0.970457 135  62  43
-0.210405  0.166201  0.946604 113  51  38
 0.0298445 -0.0632166   0.843149 91 95 62
-0.073093   0.33537  0.924224 199 135  89
 -0.175207 -0.0588213   0.908954 71 79 58
 -0.243748 -0.0435839   0.932851 226 227 229
 -0.243748 -0.0435839   0.932851 226 227 229
-0.0411411 -0.0231512   0.871162 158 163 123
-0.185617  0.330896  0.959587 91 32 26
-0.069868  0.408978  0.932113 163  91  69
-0.237886  0.182141  0.958172 192 135  64
-0.195596  0.168336  0.942119 91 44 36
-0.195536  0.168294  0.942179 91 44 36
-0.140299   0.41735  0.955494 44 33 31
-0.177468  0.198869  0.940706 78 41 32
-0.360246  0.457262  0.967993 49 50 45
0.109846 0.483483   0.8235 63 62 57
-0.256439 -0.308329  0.903541 118 133 100
-0.136686  0.483759  0.888155 38 40 39
0.111831 0.489238 0.817791 186 188 177
 0.281528 -0.237555   0.94141 132 140 143
-0.113363  0.240386  0.925852 148  72  56
-0.211667 -0.203968  0.903434  86 105  77
-0.229386  0.245407   0.96402 186 124  63
